# 3D point list with one line of data per point:
#   POINT3D_ID, X, Y, Z, R, G, B, ERROR, TRACK[] as (IMAGE_ID, POINT2D_IDX)
88 -1.3029683828353881836 -0.036944437772035598755 0.93132376670837402344 62 35 61 0 0 0
89 -1.2992367744445800781 -0.45312362909317016602 1.4023790359497070312 178 153 188 0 0 0
90 -1.9829845428466796875 -0.8110077977180480957 1.7827813625335693359 187 155 147 0 0 0
91 -0.99776417016983032227 -1.1570991277694702148 1.5843919515609741211 52 67 95 0 0 0
92 -1.9509807825088500977 -0.67900037765502929688 1.8795436620712280273 46 37 41 0 0 0
93 -1.0892512798309326172 -0.13381697237491607666 1.0448938608169555664 65 61 74 0 0 0
94 -1.2952951192855834961 0.12667675316333770752 0.61398971080780029297 203 170 159 0 0 0
95 -1.2776900529861450195 0.149156227707862854 0.67956155538558959961 116 95 56 0 0 0
96 -0.17901834845542907715 -0.42535445094108581543 1.2516437768936157227 26 20 68 0 0 0
97 -1.3024029731750488281 0.18465882539749145508 0.66431981325149536133 133 135 156 0 0 0
98 -1.2066504955291748047 0.23791667819023132324 0.61691832542419433594 9 9 46 0 0 0
99 -0.97037851810455322266 -0.82474935054779052734 1.7349764108657836914 181 133 145 0 0 0
100 -0.78087878227233886719 -0.69648492336273193359 1.7219786643981933594 104 114 112 0 0 0
101 -0.77031052112579345703 -0.62136340141296386719 1.4169193506240844727 37 13 39 0 0 0
102 -1.4167017936706542969 -0.29784172773361206055 1.2461534738540649414 190 184 178 0 0 0
103 -1.1762261390686035156 -0.17152863740921020508 0.83299225568771362305 117 119 125 0 0 0
104 -1.1790732145309448242 -1.0602856874465942383 2.3739180564880371094 17 1 9 0 0 0
105 -1.1024166345596313477 -0.91071087121963500977 1.7889412641525268555 231 254 254 0 0 0
106 -1.0294730663299560547 0.13781033456325531006 0.69845384359359741211 31 17 38 0 0 0
107 -0.76797664165496826172 -0.49252980947494506836 1.3397192955017089844 186 158 164 0 0 0
108 -0.85056471824645996094 -0.23002204298973083496 1.0566928386688232422 185 164 100 0 0 0
109 -1.2495958805084228516 -0.57047468423843383789 1.5570502281188964844 7 27 30 0 0 0
110 -1.3143047094345092773 -0.46485280990600585938 1.4695155620574951172 66 45 50 0 0 0
111 -1.4923393726348876953 -0.67438858747482299805 1.6283632516860961914 41 33 32 0 0 0
112 -0.95132350921630859375 -0.134836539626121521 1.0091189146041870117 128 117 164 0 0 0
113 -0.62725496292114257812 -1.0518151521682739258 1.8437917232513427734 172 155 168 0 0 0
114 -1.2726384401321411133 -0.659839630126953125 0.88270354270935058594 52 67 95 0 0 0
115 -1.4538882970809936523 -1.4670509099960327148 2.7351179122924804688 199 176 184 0 0 0
116 -1.1576759815216064453 0.21424685418605804443 0.62194854021072387695 92 34 48 0 0 0
117 -1.1970320940017700195 0.16340208053588867188 0.69079047441482543945 210 171 174 0 0 0
118 -1.2062966823577880859 0.17141039669513702393 0.76045125722885131836 110 99 99 0 0 0
119 -1.2711976766586303711 -0.56242364645004272461 1.2981733083724975586 100 66 125 0 0 0
120 -1.1321922540664672852 -0.71442866325378417969 1.6869055032730102539 135 91 132 0 0 0
121 -1.1814594268798828125 -0.36690863966941833496 1.1793454885482788086 209 209 185 0 0 0
122 -0.67951595783233642578 -0.66728889942169189453 1.6161363124847412109 195 174 197 0 0 0
123 -0.64670491218566894531 -0.54449760913848876953 1.5121963024139404297 187 172 185 0 0 0
124 -1.1302361488342285156 0.0014027473516762256622 0.88073688745498657227 50 43 67 0 0 0
125 -1.1770540475845336914 0.10308354347944259644 0.77498137950897216797 189 157 143 0 0 0
126 -0.5804265141487121582 -0.94614821672439575195 1.8806397914886474609 117 110 148 0 0 0
127 -1.4504995346069335938 -0.079569905996322631836 0.94499933719635009766 117 120 134 0 0 0
128 -1.4809896945953369141 -0.05694796144962310791 0.94330966472625732422 86 63 62 0 0 0
129 -2.0089185237884521484 -0.83886277675628662109 1.8395719528198242188 136 126 148 0 0 0
130 -0.93584650754928588867 -0.20798432826995849609 0.93534708023071289062 125 137 69 0 0 0
131 -1.2755892276763916016 -0.080944284796714782715 0.87386727333068847656 19 14 10 0 0 0
132 -1.0601074695587158203 -0.86773604154586791992 1.728298187255859375 188 254 215 0 0 0
133 -1.0876945257186889648 -0.13922399282455444336 1.0609925985336303711 77 54 66 0 0 0
134 -1.3297210931777954102 0.15769203007221221924 0.71159863471984863281 134 133 164 0 0 0
135 -1.3592522144317626953 0.15691991150379180908 0.7081044316291809082 119 117 135 0 0 0
136 -1.3371617794036865234 0.058746680617332458496 0.82783579826354980469 159 128 142 0 0 0
137 -1.1955207586288452148 0.1975815892219543457 0.65641224384307861328 62 20 27 0 0 0
138 -1.1665493249893188477 0.16717456281185150146 0.66183429956436157227 134 85 102 0 0 0
139 -1.3733227252960205078 -0.34889051318168640137 1.3171275854110717773 191 179 202 0 0 0
140 -1.5045746564865112305 -1.085862278938293457 1.9287464618682861328 56 43 65 0 0 0
141 -1.2848123311996459961 0.11154854297637939453 0.75370246171951293945 65 1 29 0 0 0
142 -1.1074731349945068359 0.16438661515712738037 0.68281340599060058594 136 139 186 0 0 0
143 -0.76703333854675292969 -0.63794434070587158203 1.5201978683471679688 176 180 185 0 0 0
144 -1.2393072843551635742 -0.28583255410194396973 1.1597191095352172852 183 169 172 0 0 0
145 -1.1684552431106567383 0.13921090960502624512 0.7474803924560546875 71 50 44 0 0 0
146 -1.4691017866134643555 -0.972347259521484375 1.8057786226272583008 99 1 100 0 0 0
147 -1.4722044467926025391 -0.97420668601989746094 1.8795973062515258789 148 137 150 0 0 0
148 -1.120968937873840332 -0.72670012712478637695 1.7215902805328369141 143 121 133 0 0 0
149 -1.2955195903778076172 -1.0078715085983276367 1.8517304658889770508 70 69 29 0 0 0
150 -1.2111855745315551758 -0.3421573340892791748 1.0911883115768432617 205 164 150 0 0 0
151 -1.8031771183013916016 -1.2788835763931274414 2.3642213344573974609 187 173 190 0 0 0
152 -1.204163670539855957 0.10252514481544494629 0.78431117534637451172 166 196 170 0 0 0
153 -0.71671259403228759766 -0.42831131815910339355 1.3158249855041503906 59 34 45 0 0 0
154 -0.46466493606567382812 -0.9916470646858215332 1.9743152856826782227 110 101 140 0 0 0
155 -1.4792802333831787109 -0.73023706674575805664 1.784794926643371582 82 47 33 0 0 0
156 -1.3316445350646972656 0.15648318827152252197 0.70832908153533935547 130 127 165 0 0 0
157 -1.5152525901794433594 -0.99149143695831298828 1.761081695556640625 44 39 60 0 0 0
158 -1.4008526802062988281 0.15301111340522766113 0.71380370855331420898 194 176 193 0 0 0
159 -1.2768540382385253906 0.12487877160310745239 0.71471679210662841797 215 194 188 0 0 0
160 -1.3346933126449584961 -0.41709893941879272461 1.565697789192199707 202 186 189 0 0 0
161 -1.4265347719192504883 -1.1534204483032226562 2.2275013923645019531 125 114 113 0 0 0
162 -1.2495880126953125 -0.71515989303588867188 1.6125020980834960938 56 44 119 0 0 0
163 -1.3817138671875 -0.82284808158874511719 1.7775530815124511719 59 53 103 0 0 0
164 -1.3019746541976928711 0.21103091537952423096 0.70435434579849243164 16 24 93 0 0 0
165 -1.4496065378189086914 -0.079130180180072784424 0.94497048854827880859 97 105 108 0 0 0
166 -1.3379502296447753906 -0.23715405166149139404 1.0364763736724853516 27 9 126 0 0 0
167 -1.4400156736373901367 -0.24978378415107727051 1.1473690271377563477 109 106 116 0 0 0
168 -0.95496237277984619141 -0.19873283803462982178 0.90186941623687744141 170 165 84 0 0 0
169 -1.6811213493347167969 -1.0407092571258544922 1.9658553600311279297 101 18 82 0 0 0
170 -1.4986897706985473633 -1.2151018381118774414 2.3788723945617675781 145 149 158 0 0 0
171 -1.2489479780197143555 -0.56884366273880004883 1.5537484884262084961 80 57 102 0 0 0
172 -1.2455906867980957031 -0.26680281758308410645 1.171219944953918457 135 144 124 0 0 0
173 -1.3466118574142456055 0.15199390053749084473 0.72442024946212768555 173 175 167 0 0 0
174 -0.76107770204544067383 -0.48827072978019714355 1.3405479192733764648 188 201 218 0 0 0
175 -1.2530293464660644531 0.18650464713573455811 0.64555078744888305664 106 12 44 0 0 0
1 -0.87320929765701293945 0.3310629725456237793 0.49342784285545349121 225 213 213 0 0 0
2 -0.63091385364532470703 0.33903899788856506348 0.43592697381973266602 20 22 12 0 0 0
3 -0.90446829795837402344 0.48221725225448608398 0.4032059013843536377 236 222 208 0 0 0
4 -0.83066844940185546875 0.48161852359771728516 0.37117254734039306641 51 26 22 0 0 0
5 -0.84271907806396484375 0.54988455772399902344 0.2835826575756072998 56 42 59 0 0 0
6 -1.4013597965240478516 0.15506312251091003418 0.71181368827819824219 73 17 85 0 0 0
7 -1.2455804347991943359 0.30330878496170043945 0.50938326120376586914 239 226 225 0 0 0
8 -1.1116192340850830078 0.43399265408515930176 0.37779137492179870605 124 107 95 0 0 0
9 -1.2021871805191040039 0.4352709650993347168 0.31352135539054870605 179 157 164 0 0 0
10 -0.79625529050827026367 0.12060348689556121826 0.77076774835586547852 106 87 52 0 0 0
11 -1.0024298429489135742 0.11132295429706573486 0.74348825216293334961 101 89 91 0 0 0
12 -0.8839581608772277832 0.20742200314998626709 0.61929464340209960938 123 67 37 0 0 0
13 -0.82089596986770629883 -0.14047735929489135742 0.74789673089981079102 154 138 134 0 0 0
14 -0.80756342411041259766 -0.0051993238739669322968 0.83844381570816040039 83 54 31 0 0 0
15 -1.1608067750930786133 -0.016981000080704689026 0.90257418155670166016 187 167 168 0 0 0
16 -1.3510090112686157227 0.13804061710834503174 0.72802877426147460938 229 214 215 0 0 0
17 -1.3787560462951660156 0.3429024815559387207 0.41973587870597839355 158 142 185 0 0 0
18 -1.2565559148788452148 0.42035901546478271484 0.31227803230285644531 161 156 192 0 0 0
19 -0.70312583446502685547 0.22058072686195373535 0.56172198057174682617 193 182 172 0 0 0
20 -0.40290918946266174316 0.39696523547172546387 0.508819580078125 206 202 201 0 0 0
21 -0.56547957658767700195 0.5288346409797668457 0.34659236669540405273 26 32 65 0 0 0
22 0.038895793259143829346 -0.15200525522232055664 1.1242403984069824219 58 54 87 0 0 0
23 0.15126913785934448242 0.13168452680110931396 0.885528564453125 252 251 253 0 0 0
24 -1.2970905303955078125 -0.028895169496536254883 0.90714734792709350586 76 4 25 0 0 0
25 -1.2058898210525512695 0.14675739407539367676 0.69007104635238647461 224 214 212 0 0 0
26 -0.9441941380500793457 -0.11988171935081481934 0.715015411376953125 184 174 160 0 0 0
27 -0.72651898860931396484 0.089811041951179504395 0.52991789579391479492 197 188 183 0 0 0
28 -0.71694028377532958984 0.23260378837585449219 0.48385840654373168945 24 17 34 0 0 0
29 0.12068447470664978027 0.034115407615900039673 0.95464354753494262695 41 1 14 0 0 0
30 0.10162579268217086792 0.13531090319156646729 0.84297567605972290039 242 212 211 0 0 0
31 -0.71989995241165161133 -0.12691487371921539307 0.6714738011360168457 188 169 159 0 0 0
32 -1.1762222051620483398 0.39280772209167480469 0.38216441869735717773 237 233 234 0 0 0
33 -1.1896152496337890625 0.46520099043846130371 0.41387540102005004883 173 151 147 0 0 0
34 -1.3807477951049804688 0.34292861819267272949 0.43152254819869995117 178 161 192 0 0 0
35 -1.3101332187652587891 0.38203197717666625977 0.43080991506576538086 250 234 234 0 0 0
36 -1.3845802545547485352 0.38943713903427124023 0.34361091256141662598 248 243 246 0 0 0
37 -1.3155970573425292969 0.42866691946983337402 0.30123823881149291992 234 225 224 0 0 0
38 -1.0055854320526123047 0.25302833318710327148 0.60006129741668701172 184 180 138 0 0 0
39 -1.4008526802062988281 0.15301111340522766113 0.71380370855331420898 131 115 171 0 0 0
40 -1.2707289457321166992 0.18548516929149627686 0.64598315954208374023 250 245 247 0 0 0
41 -0.63666975498199462891 0.58480113744735717773 0.27344274520874023438 139 59 43 0 0 0
42 -0.58389586210250854492 0.60013812780380249023 0.2677739560604095459 225 179 165 0 0 0
43 -0.62713712453842163086 0.68521630764007568359 0.26005503535270690918 244 240 246 0 0 0
44 -0.71939760446548461914 0.408924102783203125 0.3507124781608581543 81 58 58 0 0 0
45 -1.1279194355010986328 0.22193112969398498535 0.6237990260124206543 77 30 28 0 0 0
46 -1.1483805179595947266 0.26244050264358520508 0.56332671642303466797 88 54 78 0 0 0
47 -1.0180852413177490234 0.50149297714233398438 0.28948435187339782715 41 40 83 0 0 0
48 -1.1126412153244018555 0.32862797379493713379 0.47521743178367614746 252 249 254 0 0 0
49 -1.1353069543838500977 0.34797292947769165039 0.44186308979988098145 238 228 239 0 0 0
50 -1.0010175704956054688 0.10795874148607254028 0.74932843446731567383 101 111 90 0 0 0
51 -0.88360792398452758789 0.21182297170162200928 0.61499392986297607422 122 34 40 0 0 0
52 -1.2383418083190917969 -0.068772524595260620117 0.96862089633941650391 18 3 15 0 0 0
53 -0.93315416574478149414 -0.12505711615085601807 0.74409997463226318359 191 186 180 0 0 0
54 -1.3225891590118408203 -0.44272187352180480957 1.3877468109130859375 54 48 51 0 0 0
55 -1.2544648647308349609 -0.27043527364730834961 1.1586804389953613281 169 159 160 0 0 0
56 -0.20640769600868225098 0.15983986854553222656 0.86211615800857543945 236 223 217 0 0 0
57 -0.72944420576095581055 0.092513576149940490723 0.51894450187683105469 188 183 190 0 0 0
58 -0.75689601898193359375 0.25899901986122131348 0.54891109466552734375 25 34 106 0 0 0
59 0.59661501646041870117 -0.23381878435611724854 1.2202856540679931641 137 129 143 0 0 0
60 -0.20250457525253295898 -0.10426320135593414307 1.075986027717590332 180 169 153 0 0 0
61 -1.2516473531723022461 0.41857513785362243652 0.32033514976501464844 157 145 188 0 0 0
62 -1.377765655517578125 0.3427174687385559082 0.42027255892753601074 138 122 169 0 0 0
63 -1.3120838403701782227 0.43213531374931335449 0.30287098884582519531 239 243 227 0 0 0
64 -0.9816258549690246582 0.24519085884094238281 0.66084760427474975586 47 29 72 0 0 0
65 -1.0749477148056030273 0.34494447708129882812 0.43318572640419006348 249 236 200 0 0 0
66 -1.3947010040283203125 0.26870840787887573242 0.57925546169281005859 94 20 96 0 0 0
67 -0.6399281620979309082 0.58244967460632324219 0.27267867326736450195 120 95 75 0 0 0
68 -0.77034181356430053711 0.60851252079010009766 0.20376791059970855713 78 3 53 0 0 0
69 -0.81342196464538574219 0.5452111363410949707 0.29874184727668762207 132 95 118 0 0 0
70 -0.84615749120712280273 0.54742485284805297852 0.28549417853355407715 99 69 69 0 0 0
71 0.18961767852306365967 0.680667877197265625 0.83464890718460083008 61 13 11 0 0 0
72 -1.1522186994552612305 0.26235404610633850098 0.56573998928070068359 29 23 40 0 0 0
73 -1.0612999200820922852 0.26838359236717224121 0.52243846654891967773 25 15 10 0 0 0
74 -1.2704217433929443359 0.19111090898513793945 0.6425622105598449707 217 201 223 0 0 0
75 -1.2128021717071533203 0.19090761244297027588 0.69128936529159545898 172 159 155 0 0 0
76 -0.75831824541091918945 0.30628573894500732422 0.41023334860801696777 227 198 120 0 0 0
77 -0.6410382390022277832 0.33388856053352355957 0.42087405920028686523 20 15 1 0 0 0
78 -0.66975289583206176758 0.37943762540817260742 0.41988778114318847656 49 7 14 0 0 0
79 -0.978424072265625 0.44687747955322265625 0.32816946506500244141 100 73 36 0 0 0
80 -0.84159189462661743164 0.48121848702430725098 0.36220186948776245117 77 40 34 0 0 0
81 -0.88022583723068237305 0.53513157367706298828 0.30754739046096801758 152 134 139 0 0 0
82 -0.94160807132720947266 0.53261321783065795898 0.23185531795024871826 168 155 145 0 0 0
83 -1.0058753490447998047 0.54405230283737182617 0.24434760212898254395 156 125 80 0 0 0
84 -1.2175316810607910156 0.32937821745872497559 0.4818502962589263916 77 88 56 0 0 0
85 -1.1735820770263671875 0.39407885074615478516 0.40054860711097717285 249 248 251 0 0 0
86 -1.2497208118438720703 -0.042153947055339813232 0.70373046398162841797 19 5 34 0 0 0
87 -1.3756328821182250977 0.12760658562183380127 0.68854230642318725586 197 157 167 0 0 0
88 -0.94888764619827270508 -0.11994539946317672729 0.69633978605270385742 159 152 131 0 0 0
89 -1.3143047094345092773 -0.46485280990600585938 1.4695155620574951172 64 40 59 0 0 0
90 -1.4129747152328491211 -0.29821598529815673828 1.2424218654632568359 153 118 139 0 0 0
91 -0.7294495701789855957 0.095306403934955596924 0.51396065950393676758 214 205 149 0 0 0
92 0.14823305606842041016 0.032076682895421981812 0.98425048589706420898 66 70 84 0 0 0
93 0.11508941650390625 0.12561240792274475098 0.84611028432846069336 209 177 116 0 0 0
94 -0.69216430187225341797 0.007377940695732831955 0.32254835963249206543 148 137 120 0 0 0
95 -1.0552387237548828125 0.5404707789421081543 0.24574272334575653076 146 129 146 0 0 0
96 -1.3848642110824584961 0.37122008204460144043 0.5656617283821105957 182 169 191 0 0 0
97 -1.3026381731033325195 0.3890978693962097168 0.43032306432723999023 240 226 220 0 0 0
98 -1.3973942995071411133 0.27014553546905517578 0.57812035083770751953 173 165 173 0 0 0
99 -1.2933715581893920898 0.28755474090576171875 0.55529385805130004883 90 49 78 0 0 0
100 -0.54845535755157470703 0.66832309961318969727 0.19267621636390686035 160 168 192 0 0 0
101 -0.39938762784004211426 0.39908018708229064941 0.50393986701965332031 213 206 204 0 0 0
102 -0.56650269031524658203 0.51826393604278564453 0.36599200963973999023 73 31 91 0 0 0
103 -0.35164371132850646973 0.56130039691925048828 0.33190503716468811035 224 201 188 0 0 0
104 -1.1587899923324584961 0.21290035545825958252 0.62529128789901733398 228 221 226 0 0 0
105 -1.0951982736587524414 0.2360172271728515625 0.53714001178741455078 25 3 10 0 0 0
106 -1.1531442403793334961 0.26423531770706176758 0.60013443231582641602 64 21 49 0 0 0
107 -1.2166736125946044922 0.32349285483360290527 0.49509188532829284668 91 64 28 0 0 0
108 -0.98102998733520507812 0.52341139316558837891 0.27560648322105407715 250 248 249 0 0 0
109 -0.93759644031524658203 0.53905004262924194336 0.24441677331924438477 217 187 135 0 0 0
110 -1.0356233119964599609 0.55131703615188598633 0.22849039733409881592 224 213 208 0 0 0
111 -1.2638599872589111328 0.1888942718505859375 0.64204204082489013672 236 233 231 0 0 0
112 -1.3401706218719482422 0.24413755536079406738 0.60422527790069580078 129 110 122 0 0 0
113 -1.21865081787109375 0.24548797309398651123 0.60723721981048583984 253 249 245 0 0 0
114 -0.65923702716827392578 0.38524910807609558105 0.44068685173988342285 2 3 1 0 0 0
115 -1.289481043815612793 0.089210577309131622314 0.78626656532287597656 205 180 176 0 0 0
116 -0.73366177082061767578 0.40171647071838378906 0.31021505594253540039 41 30 62 0 0 0
117 -0.75400531291961669922 0.49055981636047363281 0.36633804440498352051 46 30 37 0 0 0
118 -1.205828547477722168 0.37998047471046447754 0.41414090991020202637 254 243 228 0 0 0
119 -1.2498458623886108398 0.42100536823272705078 0.32819214463233947754 178 170 218 0 0 0
120 -1.1864794492721557617 0.4472236335277557373 0.37725278735160827637 226 210 192 0 0 0
121 -0.76916927099227905273 0.60794293880462646484 0.20379360020160675049 67 63 148 0 0 0
122 -0.88274854421615600586 0.53536623716354370117 0.3058293461799621582 166 160 167 0 0 0
123 -0.7169272303581237793 0.59658730030059814453 0.25778362154960632324 252 215 179 0 0 0
124 -0.76620793342590332031 0.31706345081329345703 0.56230330467224121094 42 38 84 0 0 0
125 -0.88807713985443115234 0.35343468189239501953 0.46042633056640625 170 138 136 0 0 0
126 -0.79488605260848999023 0.37357571721076965332 0.46587216854095458984 109 102 126 0 0 0
127 -1.0062986612319946289 0.23885981738567352295 0.58692681789398193359 47 29 72 0 0 0
128 -0.98474591970443725586 -0.046890038996934890747 0.78065276145935058594 117 132 119 0 0 0
129 -1.3125169277191162109 -0.44966223835945129395 1.4218726158142089844 63 34 46 0 0 0
130 -1.4167017936706542969 -0.29784172773361206055 1.2461534738540649414 130 129 140 0 0 0
131 -1.0910218954086303711 -0.15749478340148925781 0.74736005067825317383 191 181 177 0 0 0
132 -0.043368998914957046509 0.2218611985445022583 0.74298381805419921875 145 84 130 0 0 0
133 0.61554992198944091797 -0.23670148849487304688 1.2288047075271606445 119 100 109 0 0 0
134 0.093354888260364532471 0.034757602959871292114 0.92936038970947265625 86 34 26 0 0 0
135 -1.1163161993026733398 0.53754186630249023438 0.23932482302188873291 206 228 247 0 0 0
136 -1.4068247079849243164 0.39577153325080871582 0.34462031722068786621 245 234 240 0 0 0
137 -0.54686093330383300781 0.66928786039352416992 0.19574922323226928711 155 91 1 0 0 0
138 -0.34432679414749145508 0.56428217887878417969 0.34360665082931518555 254 254 221 0 0 0
139 -0.86773288249969482422 0.37106588482856750488 0.45597538352012634277 65 29 18 0 0 0
140 -1.1593366861343383789 0.21114088594913482666 0.622955322265625 223 233 229 0 0 0
141 -1.1098566055297851562 0.23647388815879821777 0.51486855745315551758 29 40 66 0 0 0
142 -1.139769434928894043 0.26036676764488220215 0.54965662956237792969 83 45 97 0 0 0
143 -1.0367760658264160156 0.54568678140640258789 0.21735207736492156982 247 254 252 0 0 0
144 -1.0064760446548461914 0.57008802890777587891 0.21854323148727416992 254 254 253 0 0 0
145 -1.0900559425354003906 0.35498395562171936035 0.50179344415664672852 99 85 61 0 0 0
146 -1.216389775276184082 0.34640675783157348633 0.55016469955444335938 108 68 62 0 0 0
147 -0.62894147634506225586 0.33756241202354431152 0.43456131219863891602 85 77 60 0 0 0
148 -1.2917683124542236328 0.087542876601219177246 0.805164337158203125 195 167 182 0 0 0
149 -1.2701894044876098633 0.16918735206127166748 0.65517669916152954102 235 240 244 0 0 0
150 -0.71781522035598754883 0.59776127338409423828 0.25884580612182617188 234 217 202 0 0 0
151 -1.0167093276977539062 0.50118601322174072266 0.28781425952911376953 124 98 117 0 0 0
152 -0.7705122828483581543 0.6091340184211730957 0.2035847008228302002 81 5 60 0 0 0
153 -0.69455730915069580078 0.62177127599716186523 0.23637206852436065674 189 151 96 0 0 0
154 -0.78954154253005981445 0.64125216007232666016 0.18441435694694519043 116 34 9 0 0 0
155 -0.68363451957702636719 0.66123300790786743164 0.19290111958980560303 230 196 193 0 0 0
156 -0.75477290153503417969 0.49049878120422363281 0.36705917119979858398 53 43 57 0 0 0
157 -0.71610611677169799805 0.47400671243667602539 0.31230551004409790039 103 78 56 0 0 0
158 -0.81326067447662353516 0.54146516323089599609 0.29801198840141296387 132 95 118 0 0 0
159 -1.0294730663299560547 0.13781033456325531006 0.69845384359359741211 41 27 28 0 0 0
160 -1.0598676204681396484 0.15577377378940582275 0.72288239002227783203 69 57 51 0 0 0
161 -0.81826710700988769531 0.35773041844367980957 0.42944061756134033203 121 90 94 0 0 0
162 -0.89038509130477905273 0.29352805018424987793 0.5738048553466796875 87 84 87 0 0 0
163 -1.3455753326416015625 0.42430928349494934082 0.31498217582702636719 171 147 160 0 0 0
164 -0.70819300413131713867 0.22829321026802062988 0.4674638211727142334 8 8 6 0 0 0
165 0.091891780495643615723 -0.13074286282062530518 0.96109026670455932617 105 100 115 0 0 0
166 -0.60911506414413452148 0.4647941291332244873 0.3307279050350189209 219 231 244 0 0 0
167 -0.70758908987045288086 0.0075226444751024246216 0.30573236942291259766 127 122 130 0 0 0
168 -0.85169935226440429688 -0.14027121663093566895 0.67434716224670410156 113 105 86 0 0 0
169 -0.52512085437774658203 -0.26754993200302124023 1.2432091236114501953 142 124 72 0 0 0
170 -1.4528441429138183594 -0.076756663620471954346 0.94296032190322875977 124 121 131 0 0 0
171 0.12101078778505325317 0.033749472349882125854 0.96053987741470336914 86 34 26 0 0 0
172 -1.4405715465545654297 0.36809319257736206055 0.4201043248176574707 155 139 148 0 0 0
173 -1.4147434234619140625 0.41745132207870483398 0.31944024562835693359 170 133 149 0 0 0
174 -1.3999707698822021484 0.15311236679553985596 0.71360188722610473633 55 60 125 0 0 0
175 -1.3973942995071411133 0.27014553546905517578 0.57812035083770751953 109 34 113 0 0 0
176 -1.2824428081512451172 0.2926585078239440918 0.54435575008392333984 190 183 196 0 0 0
177 -1.1296447515487670898 0.20849069952964782715 0.60284775495529174805 120 111 197 0 0 0
178 -1.1083893775939941406 0.23603302240371704102 0.51606804132461547852 76 61 69 0 0 0
179 -1.139113306999206543 0.25989335775375366211 0.5462945103645324707 104 100 143 0 0 0
180 -1.1109142303466796875 0.26343286037445068359 0.53777050971984863281 80 54 17 0 0 0
181 -1.1857494115829467773 0.37334859371185302734 0.42921262979507446289 159 116 150 0 0 0
182 -0.64798009395599365234 0.57378298044204711914 0.28817477822303771973 123 72 119 0 0 0
183 -1.2614932060241699219 0.19081640243530273438 0.64350479841232299805 234 228 244 0 0 0
184 -0.94132637977600097656 0.48776581883430480957 0.31367692351341247559 220 188 138 0 0 0
185 -0.91887873411178588867 0.44924592971801757812 0.2958240211009979248 193 162 159 0 0 0
186 -0.71707397699356079102 0.47385704517364501953 0.30922836065292358398 106 72 33 0 0 0
187 -0.89038509130477905273 0.29352805018424987793 0.5738048553466796875 54 30 65 0 0 0
188 -1.3449891805648803711 0.42279472947120666504 0.31473270058631896973 141 116 148 0 0 0
189 -1.3123668432235717773 0.4361229240894317627 0.30011948943138122559 230 219 214 0 0 0
190 -0.78508585691452026367 0.27947449684143066406 0.53391546010971069336 54 56 105 0 0 0
191 -0.73992043733596801758 0.29395470023155212402 0.44075316190719604492 87 47 34 0 0 0
192 -0.78738194704055786133 0.57087910175323486328 0.25203979015350341797 57 13 79 0 0 0
193 -1.2488969564437866211 0.4219118654727935791 0.32892572879791259766 200 172 199 0 0 0
194 -1.1905956268310546875 0.43877875804901123047 0.34923896193504333496 236 220 231 0 0 0
195 -0.78435379266738891602 0.59421199560165405273 0.18630741536617279053 88 83 133 0 0 0
196 -0.67093282938003540039 0.66118633747100830078 0.19703744351863861084 174 133 188 0 0 0
197 -0.48466724157333374023 0.25395831465721130371 0.61411976814270019531 136 105 103 0 0 0
198 -0.20483890175819396973 -0.10731548815965652466 1.0796761512756347656 127 122 130 0 0 0
199 -0.52794277667999267578 -0.26919978857040405273 1.236812591552734375 61 52 1 0 0 0
200 -1.3794177770614624023 0.39377856254577636719 0.34431356191635131836 248 254 237 0 0 0
201 -0.87725836038589477539 0.10068590939044952393 0.78709512948989868164 61 13 1 0 0 0
202 -0.79793763160705566406 0.11378771066665649414 0.7860094904899597168 130 117 86 0 0 0
203 -0.94379860162734985352 0.21094299852848052979 0.6402600407600402832 134 82 108 0 0 0
204 -0.87984883785247802734 0.20796822011470794678 0.63081324100494384766 128 79 73 0 0 0
205 -1.0579214096069335938 0.52358722686767578125 0.26111775636672973633 219 232 245 0 0 0
206 -1.1314103603363037109 0.5288257598876953125 0.24362400174140930176 199 218 251 0 0 0
207 -1.0870044231414794922 0.55485773086547851562 0.22259248793125152588 208 210 245 0 0 0
208 -0.36707150936126708984 0.093040160834789276123 0.80889225006103515625 200 185 168 0 0 0
209 -0.42018863558769226074 0.13171152770519256592 0.76620215177536010742 192 173 163 0 0 0
210 -0.85971790552139282227 0.56950283050537109375 0.2667821347713470459 249 233 227 0 0 0
211 -0.92967492341995239258 0.39658257365226745605 0.39250397682189941406 158 145 145 0 0 0
212 -0.84269642829895019531 0.48158288002014160156 0.36373576521873474121 77 14 38 0 0 0
213 -0.72584092617034912109 0.23304484784603118896 0.65017747879028320312 66 54 75 0 0 0
214 -0.82814145088195800781 -0.15520426630973815918 0.74372559785842895508 77 90 99 0 0 0
215 -0.98985069990158081055 0.0039918450638651847839 0.77906078100204467773 78 85 75 0 0 0
216 -1.4193454980850219727 -0.29377472400665283203 1.2398602962493896484 117 121 114 0 0 0
217 -0.048543028533458709717 0.22135007381439208984 0.73862320184707641602 78 12 64 0 0 0
218 -0.72227710485458374023 0.098945550620555877686 0.52896553277969360352 170 158 135 0 0 0
219 -1.1095569133758544922 0.23394592106342315674 0.50822073221206665039 76 61 69 0 0 0
220 -0.66677784919738769531 0.32486808300018310547 0.44459325075149536133 100 98 129 0 0 0
221 -1.1008663177490234375 0.36823895573616027832 0.48434981703758239746 69 17 24 0 0 0
222 -1.1862043142318725586 0.37355124950408935547 0.42782300710678100586 158 132 153 0 0 0
223 -1.163021087646484375 0.35215699672698974609 0.45556128025054931641 165 141 158 0 0 0
224 -1.3248503208160400391 0.065863564610481262207 0.80918461084365844727 231 225 232 0 0 0
225 -1.3095393180847167969 0.43258813023567199707 0.28394874930381774902 203 200 210 0 0 0
226 -1.3495359420776367188 0.46867153048515319824 0.26569345593452453613 209 191 205 0 0 0
227 -0.93639862537384033203 0.53766745328903198242 0.24578149616718292236 203 187 134 0 0 0
228 -0.8062693476676940918 0.50953143835067749023 0.31921228766441345215 91 102 90 0 0 0
229 -0.77146381139755249023 0.54869121313095092773 0.28439223766326904297 175 181 185 0 0 0
230 -1.2689585685729980469 0.16986727714538574219 0.65036034584045410156 178 187 177 0 0 0
231 -1.226487278938293457 0.27888381481170654297 0.56989306211471557617 78 1 41 0 0 0
232 -0.93967175483703613281 0.48853141069412231445 0.31001335382461547852 206 193 163 0 0 0
233 -1.0194376707077026367 0.50074666738510131836 0.29051786661148071289 124 98 117 0 0 0
234 -0.88114768266677856445 0.53818029165267944336 0.3010984957218170166 137 100 85 0 0 0
235 -1.0518052577972412109 0.23852534592151641846 0.53324913978576660156 68 26 110 0 0 0
236 -0.89118915796279907227 0.29572799801826477051 0.573638916015625 54 30 65 0 0 0
237 -0.79146331548690795898 0.28926613926887512207 0.52787744998931884766 93 120 133 0 0 0
238 -0.82300543785095214844 0.35627245903015136719 0.41422569751739501953 126 69 89 0 0 0
239 -0.71737980842590332031 0.41728892922401428223 0.26634988188743591309 122 71 90 0 0 0
240 -0.77283447980880737305 0.61169230937957763672 0.20349271595478057861 81 5 60 0 0 0
241 -0.68106788396835327148 0.66505563259124755859 0.19357673823833465576 230 196 193 0 0 0
242 -1.0230159759521484375 0.086349375545978546143 0.76657253503799438477 58 78 17 0 0 0
243 -1.4142744541168212891 0.35847926139831542969 0.39090326428413391113 204 167 178 0 0 0
244 -1.4396463632583618164 0.36713540554046630859 0.41757661104202270508 160 133 164 0 0 0
245 -0.62742882966995239258 0.46008804440498352051 0.30910971760749816895 236 244 251 0 0 0
246 -0.56598305702209472656 0.51665741205215454102 0.36873885989189147949 116 44 49 0 0 0
247 -0.56441962718963623047 0.53497707843780517578 0.3400561213493347168 29 5 4 0 0 0
248 -0.54651975631713867188 0.6688492894172668457 0.19803734123706817627 134 122 122 0 0 0
249 -0.6656869053840637207 0.67312294244766235352 0.13794890046119689941 230 198 149 0 0 0
250 -0.95010095834732055664 0.20905514061450958252 0.61512416601181030273 134 82 108 0 0 0
251 -0.87897509336471557617 0.20766177773475646973 0.62987196445465087891 137 106 110 0 0 0
252 -1.1191328763961791992 0.44883608818054199219 0.32142919301986694336 161 178 230 0 0 0
253 -1.0668534040451049805 0.48546674847602844238 0.2996539771556854248 203 224 242 0 0 0
254 0.56014162302017211914 -0.22622543573379516602 1.1720124483108520508 96 87 96 0 0 0
255 0.56685924530029296875 -0.22626549005508422852 1.1853075027465820312 96 56 68 0 0 0
256 -1.3741629123687744141 0.34552171826362609863 0.42437604069709777832 114 102 154 0 0 0
257 -1.3731570243835449219 0.40585619211196899414 0.34540063142776489258 139 97 120 0 0 0
258 0.56718695163726806641 -0.36297315359115600586 1.3406201601028442383 88 55 63 0 0 0
259 0.2126204073429107666 -0.13911446928977966309 1.0776268243789672852 156 145 152 0 0 0
260 -0.069885015487670898438 -0.11376148462295532227 0.97754299640655517578 83 62 89 0 0 0
261 -0.72436827421188354492 0.23506160080432891846 0.65366190671920776367 66 54 75 0 0 0
262 -0.91306781768798828125 0.37495812773704528809 0.41618022322654724121 170 156 143 0 0 0
263 -0.84023553133010864258 0.4020646512508392334 0.43086227774620056152 132 58 83 0 0 0
264 -0.84449118375778198242 0.4819246828556060791 0.3629938662052154541 86 51 59 0 0 0
265 -1.0504364967346191406 0.3487657010555267334 0.38421338796615600586 213 182 184 0 0 0
266 -1.2484382390975952148 -0.2685177922248840332 1.1664427518844604492 144 137 134 0 0 0
267 -1.4120558500289916992 0.42057535052299499512 0.32021379470825195312 173 135 152 0 0 0
268 -0.34527894854545593262 0.56554144620895385742 0.33683958649635314941 228 236 254 0 0 0
269 0.080228514969348907471 -0.019694995135068893433 1.0010505914688110352 62 35 31 0 0 0
270 -0.86504501104354858398 0.58519333600997924805 0.25800842046737670898 167 133 96 0 0 0
271 -0.8259131312370300293 0.6355412602424621582 0.210109710693359375 210 178 140 0 0 0
272 -0.83727115392684936523 -0.0058020702563226222992 0.79428935050964355469 132 102 88 0 0 0
273 -1.3371617794036865234 0.058746680617332458496 0.82783579826354980469 123 17 82 0 0 0
274 -0.81343787908554077148 0.6012522578239440918 0.24724990129470825195 118 59 24 0 0 0
275 -1.1537948846817016602 0.2767333686351776123 0.56485068798065185547 91 8 21 0 0 0
276 -1.1778441667556762695 0.12961217761039733887 0.7379162907600402832 96 1 18 0 0 0
277 -0.63864749670028686523 0.59170210361480712891 0.26825392246246337891 148 39 24 0 0 0
278 -0.66378706693649291992 0.38603979349136352539 0.43152886629104614258 49 1 2 0 0 0
279 -0.97831171751022338867 0.45680445432662963867 0.31903600692749023438 94 84 58 0 0 0
280 -1.0198601484298706055 0.52752065658569335938 0.25861617922782897949 196 201 193 0 0 0
281 -1.0334900617599487305 0.5519307255744934082 0.23210620880126953125 243 239 231 0 0 0
282 -1.2465599775314331055 0.42316150665283203125 0.32769212126731872559 169 145 170 0 0 0
283 -1.2776900529861450195 0.149156227707862854 0.67956155538558959961 171 161 160 0 0 0
284 -1.2222075462341308594 0.25182649493217468262 0.56968581676483154297 202 208 206 0 0 0
285 -0.55474632978439331055 -0.44922882318496704102 1.2861838340759277344 60 9 18 0 0 0
286 -0.46988898515701293945 0.22535482048988342285 0.64981889724731445312 132 33 90 0 0 0
287 -0.68984168767929077148 0.66030842065811157227 0.19517858326435089111 178 193 197 0 0 0
288 -1.0576523542404174805 0.2344446033239364624 0.51423066854476928711 68 26 110 0 0 0
289 -1.0533795356750488281 0.27379721403121948242 0.53223562240600585938 65 62 105 0 0 0
290 -0.74654293060302734375 0.297534942626953125 0.42965090274810791016 85 1 19 0 0 0
291 -0.89284110069274902344 0.35858717560768127441 0.44951510429382324219 93 7 71 0 0 0
292 -0.64599961042404174805 0.68783450126647949219 0.095063932240009307861 135 142 105 0 0 0
293 -1.1331657171249389648 0.53098112344741821289 0.24676461517810821533 188 222 251 0 0 0
294 0.42471939325332641602 -0.1744368821382522583 0.89643025398254394531 147 94 118 0 0 0
295 0.51699876785278320312 -0.094229362905025482178 0.92983609437942504883 128 109 91 0 0 0
296 -0.35977515578269958496 0.090664096176624298096 0.82064193487167358398 167 127 140 0 0 0
297 -0.24303981661796569824 -0.070449233055114746094 1.0311682224273681641 34 2 71 0 0 0
298 -0.5698693394660949707 0.51549905538558959961 0.36555534601211547852 34 1 53 0 0 0
299 -0.78863900899887084961 -0.021946066990494728088 0.93155521154403686523 111 32 61 0 0 0
300 -0.94999384880065917969 0.20865961909294128418 0.61436289548873901367 118 21 61 0 0 0
301 -1.4383009672164916992 0.36887797713279724121 0.41887214779853820801 168 134 159 0 0 0
302 -1.4710673093795776367 -0.24091169238090515137 1.1668378114700317383 114 100 75 0 0 0
303 -0.63585662841796875 0.21904480457305908203 0.69743597507476806641 193 178 134 0 0 0
304 -1.1199905872344970703 0.44028893113136291504 0.38648581504821777344 142 110 120 0 0 0
305 -0.0053756074048578739166 0.21014177799224853516 0.75904124975204467773 178 183 127 0 0 0
306 -0.86293995380401611328 0.37655633687973022461 0.46478408575057983398 143 86 72 0 0 0
307 -0.84449118375778198242 0.4819246828556060791 0.3629938662052154541 62 7 32 0 0 0
308 -0.413700103759765625 0.63309115171432495117 0.25236335396766662598 95 1 1 0 0 0
309 -0.93370062112808227539 -0.063988931477069854736 0.74936527013778686523 121 125 87 0 0 0
310 -0.37377855181694030762 0.61412990093231201172 0.28000158071517944336 204 171 83 0 0 0
311 -0.98790538311004638672 0.0049707693979144096375 0.78152000904083251953 54 66 41 0 0 0
312 -1.2339915037155151367 -0.27319741249084472656 1.1284875869750976562 94 10 54 0 0 0
313 -1.2955726385116577148 -0.024790031835436820984 0.90757447481155395508 89 23 32 0 0 0
314 0.080325208604335784912 -0.015831870958209037781 0.99273890256881713867 56 6 20 0 0 0
315 0.10256788134574890137 0.029920469969511032104 0.94458276033401489258 41 1 14 0 0 0
316 -0.70936465263366699219 0.063707068562507629395 0.70136314630508422852 96 113 104 0 0 0
1 -1.4859488010406494141 -0.67322874069213867188 1.6057056188583374023 32 25 19 0 0 0
2 -1.3225891590118408203 -0.44272187352180480957 1.3877468109130859375 75 79 68 0 0 0
3 -1.9434740543365478516 -0.79339623451232910156 1.747562408447265625 229 196 176 0 0 0
4 -1.4935914278030395508 -1.0873583555221557617 1.9009480476379394531 32 17 18 0 0 0
5 -1.1564110517501831055 -0.94207721948623657227 1.9225183725357055664 33 27 34 0 0 0
6 -0.97631609439849853516 -0.25343492627143859863 0.83788079023361206055 193 178 154 0 0 0
7 -1.1680178642272949219 -0.20454972982406616211 0.78891652822494506836 199 213 212 0 0 0
8 -1.0099867582321166992 -0.29945448040962219238 1.1322778463363647461 113 126 155 0 0 0
9 -0.62581074237823486328 -1.0608801841735839844 1.8586456775665283203 157 150 170 0 0 0
10 -1.4051303863525390625 -0.3029600679874420166 1.2386662960052490234 254 254 253 0 0 0
11 -1.7682758569717407227 -0.28797221183776855469 0.99171644449234008789 150 130 38 0 0 0
12 -1.4541668891906738281 -0.083301424980163574219 0.94326734542846679688 99 49 63 0 0 0
13 -1.2970905303955078125 -0.028895169496536254883 0.90714734792709350586 41 30 46 0 0 0
14 -1.2295593023300170898 0.12208952754735946655 0.75543862581253051758 246 232 228 0 0 0
15 -0.65780854225158691406 -0.65485703945159912109 1.4765384197235107422 26 17 33 0 0 0
16 -0.53230214118957519531 -0.64491087198257446289 1.5186712741851806641 33 19 58 0 0 0
17 -1.1803511381149291992 0.090233057737350463867 0.79112619161605834961 225 208 206 0 0 0
18 -1.4932911396026611328 -0.68646401166915893555 1.6384184360504150391 116 79 47 0 0 0
19 -1.3225891590118408203 -0.44272187352180480957 1.3877468109130859375 158 138 124 0 0 0
20 -1.9447431564331054688 -0.7814223170280456543 1.7264165878295898438 188 161 152 0 0 0
21 -1.4981632232666015625 -1.0943604707717895508 1.9357945919036865234 12 9 38 0 0 0
22 -0.80458366870880126953 -0.3971061408519744873 1.1813554763793945312 71 17 2 0 0 0
23 -1.3427112102508544922 -0.10613101720809936523 0.50055158138275146484 135 147 156 0 0 0
24 -1.4787634611129760742 -0.062968716025352478027 0.94333678483963012695 24 4 22 0 0 0
25 -1.209572911262512207 0.095970690250396728516 0.78851217031478881836 103 91 89 0 0 0
26 -1.1744219064712524414 0.1325448155403137207 0.73604404926300048828 112 79 50 0 0 0
27 -1.1244970560073852539 -0.015278996899724006653 0.90084528923034667969 63 76 81 0 0 0
28 -1.2544648647308349609 -0.27043527364730834961 1.1586804389953613281 236 219 203 0 0 0
29 -1.2547851800918579102 -0.10597257316112518311 0.91161298751831054688 64 77 111 0 0 0
30 -1.2694479227066040039 0.16691021621227264404 0.65278494358062744141 136 133 118 0 0 0
31 -1.3361033201217651367 0.11809845268726348877 0.53708195686340332031 220 201 200 0 0 0
32 -1.2653014659881591797 0.15024040639400482178 0.70986515283584594727 211 210 218 0 0 0
33 -1.0291743278503417969 -0.49670204520225524902 1.3724099397659301758 41 7 4 0 0 0
34 -1.313775181770324707 0.098250463604927062988 0.76419788599014282227 113 93 87 0 0 0
35 -1.5218036174774169922 -1.0894918441772460938 2.0343458652496337891 210 210 219 0 0 0
36 -1.4012907743453979492 -0.74025464057922363281 1.612727046012878418 20 9 24 0 0 0
37 -1.0582430362701416016 -0.91081368923187255859 1.7569952011108398438 201 134 117 0 0 0
38 -0.97103476524353027344 -0.79458194971084594727 1.6638722419738769531 197 169 185 0 0 0
39 -1.2378759384155273438 -0.59678310155868530273 1.6211216449737548828 51 1 2 0 0 0
40 -0.88504993915557861328 -0.22682544589042663574 1.0190420150756835938 195 184 166 0 0 0
41 -1.6379408836364746094 -0.078119657933712005615 1.0509686470031738281 78 44 17 0 0 0
42 -1.1739085912704467773 0.013674703426659107208 0.70142710208892822266 60 63 47 0 0 0
43 -1.2544648647308349609 -0.27043527364730834961 1.1586804389953613281 231 216 215 0 0 0
44 -1.0892512798309326172 -0.13381697237491607666 1.0448938608169555664 32 9 41 0 0 0
45 -1.262369990348815918 0.18870206177234649658 0.64922827482223510742 254 254 254 0 0 0
46 -1.0267851352691650391 -0.76454073190689086914 1.6720247268676757812 47 1 52 0 0 0
47 -1.1227293014526367188 -0.51148247718811035156 1.2982286214828491211 22 90 180 0 0 0
48 -0.42451754212379455566 -0.7146892547607421875 1.6283415555953979492 52 39 65 0 0 0
49 -1.289481043815612793 0.089210577309131622314 0.78626656532287597656 244 231 230 0 0 0
50 -1.2288811206817626953 0.12943728268146514893 0.73783737421035766602 242 228 223 0 0 0
51 -1.3548862934112548828 -1.0186359882354736328 2.0708680152893066406 102 78 87 0 0 0
52 -1.3910719156265258789 -0.7878672480583190918 1.7056113481521606445 115 89 169 0 0 0
53 -0.78087878227233886719 -0.69648492336273193359 1.7219786643981933594 154 142 118 0 0 0
54 -1.3108557462692260742 0.078485675156116485596 0.79913562536239624023 252 247 236 0 0 0
55 -1.7686567306518554688 -0.99052250385284423828 1.9282089471817016602 77 87 87 0 0 0
56 -1.4129747152328491211 -0.29821598529815673828 1.2424218654632568359 243 254 253 0 0 0
57 -1.0647435188293457031 -0.86973232030868530273 1.7296171188354492188 207 162 122 0 0 0
58 -0.91713196039199829102 -0.85391849279403686523 1.7930128574371337891 172 151 150 0 0 0
59 -0.46642628312110900879 -1.0178754329681396484 2.0876414775848388672 181 158 183 0 0 0
60 -0.67734998464584350586 -0.7661177515983581543 1.5748442411422729492 142 129 148 0 0 0
61 -0.78491634130477905273 -0.62408584356307983398 1.4302293062210083008 33 16 19 0 0 0
62 -1.1402231454849243164 -0.71858942508697509766 1.7033466100692749023 66 28 98 0 0 0
63 -1.6389216184616088867 -0.07763621211051940918 1.0569127798080444336 79 45 19 0 0 0
64 -1.4792890548706054688 -0.060641936957836151123 0.94282019138336181641 34 23 15 0 0 0
65 -1.9509807825088500977 -0.67900037765502929688 1.8795436620712280273 57 38 51 0 0 0
66 -0.91839486360549926758 -0.087380014359951019287 0.9806601405143737793 234 208 174 0 0 0
67 -1.0298871994018554688 -0.75802814960479736328 1.6716260910034179688 41 13 48 0 0 0
68 -1.3201507329940795898 -0.30051878094673156738 0.71572911739349365234 158 147 95 0 0 0
69 -1.3331321477890014648 0.043257761746644973755 0.84673988819122314453 95 1 74 0 0 0
70 -1.5009454488754272461 -1.0868347883224487305 1.9239727258682250977 10 11 22 0 0 0
71 -1.3864959478378295898 -0.80560612678527832031 1.738555908203125 169 174 190 0 0 0
72 -1.3819202184677124023 0.14548932015895843506 0.72029328346252441406 252 254 243 0 0 0
73 -0.92824018001556396484 -0.26923364400863647461 0.89128959178924560547 169 151 123 0 0 0
74 -1.1962974071502685547 0.14156989753246307373 0.68629688024520874023 189 182 154 0 0 0
75 -1.1698694229125976562 0.16288739442825317383 0.64068961143493652344 191 174 147 0 0 0
76 -1.4769866466522216797 -0.22477632761001586914 1.1376297473907470703 209 229 213 0 0 0
77 -1.4515652656555175781 -0.25824663043022155762 1.1469616889953613281 137 167 193 0 0 0
78 -1.1382144689559936523 -0.93496024608612060547 1.9422286748886108398 38 27 34 0 0 0
79 -1.1311174631118774414 -0.72667974233627319336 1.7273365259170532227 26 30 54 0 0 0
80 -1.2339915037155151367 -0.27319741249084472656 1.1284875869750976562 42 22 39 0 0 0
81 -0.62725496292114257812 -1.0518151521682739258 1.8437917232513427734 136 113 129 0 0 0
82 -1.1713259220123291016 -0.30105090141296386719 0.95526611804962158203 131 139 166 0 0 0
83 -1.1575307846069335938 -0.20709650218486785889 0.80323374271392822266 153 159 109 0 0 0
84 -1.1542993783950805664 -0.18216253817081451416 0.87543380260467529297 219 235 234 0 0 0
85 -1.2444031238555908203 -0.57330673933029174805 1.5587408542633056641 56 16 15 0 0 0
86 -1.2992367744445800781 -0.45312362909317016602 1.4023790359497070312 121 110 180 0 0 0
87 -1.0924127101898193359 -0.13682974874973297119 1.0394566059112548828 34 21 41 0 0 0
88 -1.2480399608612060547 -0.3277944028377532959 1.396340489387512207 150 149 179 0 0 0
89 -1.2484382390975952148 -0.2685177922248840332 1.1664427518844604492 222 220 215 0 0 0
90 -1.2955195903778076172 -1.0078715085983276367 1.8517304658889770508 67 94 112 0 0 0
91 -0.99776417016983032227 -1.1570991277694702148 1.5843919515609741211 61 30 95 0 0 0
92 -1.3175840377807617188 0.079331181943416595459 0.78858488798141479492 245 235 226 0 0 0
93 -0.61281877756118774414 -0.69144958257675170898 1.5101912021636962891 79 80 95 0 0 0
94 -1.7696027755737304688 -1.0614848136901855469 2.0802898406982421875 70 72 67 0 0 0
95 -1.1970320940017700195 0.16340208053588867188 0.69079047441482543945 186 192 201 0 0 0
96 -1.2614932060241699219 0.19081640243530273438 0.64350479841232299805 254 254 254 0 0 0
97 -1.4167017936706542969 -0.29784172773361206055 1.2461534738540649414 169 169 188 0 0 0
98 -0.99566376209259033203 -1.0427677631378173828 1.7277426719665527344 105 109 121 0 0 0
99 -1.012465357780456543 -0.96414929628372192383 1.872090458869934082 4 10 31 0 0 0
100 -1.2495958805084228516 -0.57047468423843383789 1.5570502281188964844 24 6 15 0 0 0
101 -1.3143047094345092773 -0.46485280990600585938 1.4695155620574951172 11 2 15 0 0 0
102 -1.3029683828353881836 -0.036944437772035598755 0.93132376670837402344 135 123 86 0 0 0
103 -1.2755892276763916016 -0.080944284796714782715 0.87386727333068847656 46 70 85 0 0 0
104 -0.85056471824645996094 -0.23002204298973083496 1.0566928386688232422 226 203 171 0 0 0
105 -1.3527756929397583008 -0.082917585968971252441 0.95358961820602416992 64 68 86 0 0 0
106 -1.4561221599578857422 -0.089298769831657409668 0.95886141061782836914 142 168 171 0 0 0
107 -0.95132350921630859375 -0.134836539626121521 1.0091189146041870117 98 93 132 0 0 0
108 -1.0087893009185791016 -0.079683639109134674072 0.85690575838088989258 134 160 202 0 0 0
109 -1.4809896945953369141 -0.05694796144962310791 0.94330966472625732422 117 46 41 0 0 0
110 -0.98442423343658447266 -0.96712994575500488281 1.9540876150131225586 226 185 122 0 0 0
111 -0.95600873231887817383 -0.8278751373291015625 1.7409861087799072266 217 196 181 0 0 0
112 -1.1321922540664672852 -0.71442866325378417969 1.6869055032730102539 64 30 72 0 0 0
113 -1.4722044467926025391 -0.97420668601989746094 1.8795973062515258789 187 190 178 0 0 0
114 -1.3297210931777954102 0.15769203007221221924 0.71159863471984863281 148 147 160 0 0 0
115 -1.2979406118392944336 0.17680238187313079834 0.68418735265731811523 119 78 100 0 0 0
116 -1.2173866033554077148 0.093004874885082244873 0.77637130022048950195 48 10 82 0 0 0
117 -1.204163670539855957 0.10252514481544494629 0.78431117534637451172 190 193 192 0 0 0
118 -1.3857208490371704102 0.10672939568758010864 0.46601685881614685059 101 90 115 0 0 0
119 -0.71671259403228759766 -0.42831131815910339355 1.3158249855041503906 84 11 31 0 0 0
120 -1.1665493249893188477 0.16717456281185150146 0.66183429956436157227 124 85 81 0 0 0
121 -0.71904146671295166016 -0.62586534023284912109 1.5149562358856201172 107 72 85 0 0 0
122 -1.3999707698822021484 0.15311236679553985596 0.71360188722610473633 121 70 131 0 0 0
123 -1.1955207586288452148 0.1975815892219543457 0.65641224384307861328 98 153 88 0 0 0
124 -1.3817138671875 -0.82284808158874511719 1.7775530815124511719 75 1 140 0 0 0
125 -1.2711976766586303711 -0.56242364645004272461 1.2981733083724975586 17 27 91 0 0 0
126 -1.4167017936706542969 -0.29784172773361206055 1.2461534738540649414 169 169 188 0 0 0
127 -1.4710673093795776367 -0.24091169238090515137 1.1668378114700317383 141 137 115 0 0 0
128 -1.3088612556457519531 -0.50526201725006103516 1.4852455854415893555 250 245 243 0 0 0
129 -0.53479635715484619141 -0.86738187074661254883 1.7263655662536621094 114 102 144 0 0 0
130 -0.75998890399932861328 -0.65720850229263305664 1.4811094999313354492 116 92 92 0 0 0
131 -1.1814594268798828125 -0.36690863966941833496 1.1793454885482788086 247 239 232 0 0 0
